541. 550. 543. 553. 567. 562. 571. 578. 596. 667. 659. 608. 601. 566. 577. 615. 597. 583. 579. 612. 610. 611. 632. 636. 608. 572. 598. 638. 600. 582. 585. 574. 604. 648. 663. 647. 647. 633. 630. 619. 613. 608. 609. 605. 604. 604. 607. 610. 615. 621. 621. 620. 667. 683. 702. 711. 683. 661. 649. 660. 651. 658. 642. 646. 641. 633. 645. 671. 686. 651. 670. 652. 640. 634. 640. 658. 642. 639. 635. 627. 635. 637. 637. 631. 628. 626. 622. 621. 614. 615. 612. 613. 609. 609. 
539. 546. 546. 555. 560. 567. 571. 593. 635. 660. 668. 637. 636. 594. 575. 617. 595. 587. 588. 602. 649. 642. 648. 624. 630. 592. 607. 655. 635. 617. 602. 587. 596. 637. 624. 627. 642. 637. 623. 617. 609. 611. 613. 611. 612. 612. 607. 614. 620. 629. 627. 627. 633. 632. 638. 639. 634. 631. 627. 628. 628. 628. 628. 628. 629. 636. 640. 656. 662. 655. 655. 645. 640. 636. 640. 641. 641. 632. 630. 636. 636. 631. 629. 628. 625. 624. 622. 617. 617. 612. 614. 613. 612. 607. 
538. 545. 546. 556. 561. 567. 574. 596. 665. 629. 684. 648. 629. 602. 602. 604. 604. 593. 596. 603. 639. 625. 612. 609. 605. 597. 592. 598. 599. 604. 601. 602. 595. 602. 603. 609. 609. 609. 613. 619. 615. 615. 616. 614. 613. 617. 619. 626. 633. 642. 649. 656. 648. 645. 647. 645. 638. 628. 629. 621. 628. 630. 629. 630. 625. 633. 636. 662. 716. 687. 666. 647. 648. 661. 654. 648. 638. 642. 640. 648. 634. 631. 631. 628. 630. 624. 621. 618. 616. 618. 616. 613. 613. 610. 
539. 544. 546. 560. 560. 568. 582. 599. 649. 636. 630. 645. 619. 600. 606. 610. 605. 597. 598. 613. 661. 649. 624. 616. 607. 601. 593. 600. 606. 614. 611. 610. 598. 601. 600. 600. 605. 604. 612. 621. 626. 631. 630. 632. 626. 633. 637. 657. 676. 806. 814. 815. 833. 782. 746. 677. 660. 647. 643. 634. 636. 632. 630. 630. 630. 629. 630. 632. 641. 661. 711. 724. 679. 661. 665. 654. 660. 643. 648. 650. 637. 634. 634. 628. 623. 624. 619. 621. 616. 616. 614. 614. 615. 611. 
540. 546. 548. 561. 563. 575. 597. 592. 673. 641. 637. 649. 624. 606. 604. 607. 603. 597. 623. 626. 654. 662. 629. 615. 609. 601. 597. 604. 610. 616. 616. 610. 598. 601. 602. 608. 610. 630. 634. 640. 629. 646. 638. 637. 635. 640. 646. 679. 783. 825. 849. 860. 857. 847. 791. 696. 690. 658. 671. 640. 641. 642. 637. 634. 628. 630. 628. 629. 638. 658. 686. 720. 707. 663. 663. 652. 662. 649. 646. 642. 638. 634. 635. 627. 628. 624. 620. 619. 616. 615. 615. 613. 613. 613. 
540. 543. 546. 565. 575. 593. 596. 618. 686. 652. 645. 640. 626. 608. 607. 609. 609. 604. 624. 631. 656. 669. 634. 619. 611. 599. 600. 609. 615. 622. 621. 620. 616. 611. 612. 617. 622. 625. 638. 641. 635. 641. 663. 727. 722. 716. 723. 876. 904. 780. 814. 864. 759. 828. 854. 876. 873. 772. 815. 729. 720. 722. 683. 647. 640. 626. 628. 632. 629. 635. 642. 674. 702. 684. 676. 659. 652. 649. 642. 640. 638. 634. 633. 625. 625. 625. 622. 618. 618. 618. 615. 616. 617. 612. 
547. 547. 548. 552. 565. 583. 609. 660. 674. 640. 651. 641. 622. 620. 636. 610. 606. 607. 611. 612. 659. 652. 641. 620. 610. 602. 606. 616. 620. 633. 640. 632. 636. 640. 636. 606. 644. 671. 675. 657. 680. 686. 709. 688. 754. 818. 842. 760. 741. 794. 747. 792. 788. 742. 796. 839. 766. 760. 765. 775. 909. 899. 890. 807. 671. 636. 634. 630. 631. 631. 637. 695. 691. 668. 674. 693. 651. 646. 642. 642. 641. 631. 627. 624. 626. 616. 613. 614. 622. 621. 622. 621. 619. 615. 
552. 554. 556. 558. 569. 579. 610. 668. 646. 630. 654. 635. 626. 637. 635. 613. 610. 617. 615. 622. 638. 647. 626. 617. 612. 603. 607. 617. 626. 647. 654. 646. 733. 747. 804. 775. 776. 749. 845. 847. 849. 905. 816. 753. 805. 882. 960. 788. 730. 788. 782. 722. 729. 730. 738. 797. 754. 769. 804. 781. 784. 806. 815. 826. 823. 657. 646. 633. 633. 628. 631. 641. 663. 689. 679. 667. 659. 646. 646. 651. 642. 630. 627. 619. 621. 613. 612. 611. 623. 626. 622. 622. 622. 618. 
566. 560. 558. 561. 566. 574. 616. 647. 640. 630. 654. 635. 626. 622. 623. 614. 611. 616. 617. 640. 662. 640. 624. 618. 612. 605. 608. 620. 636. 666. 674. 656. 717. 764. 783. 829. 787. 874. 882. 862. 853. 872. 803. 750. 788. 914. 944. 809. 742. 743. 771. 717. 721. 732. 736. 742. 770. 789. 809. 809. 783. 805. 820. 863. 926. 666. 653. 630. 631. 630. 630. 639. 649. 666. 683. 658. 653. 648. 646. 649. 647. 634. 630. 618. 619. 609. 606. 612. 622. 625. 622. 625. 620. 620. 
573. 567. 579. 574. 569. 575. 593. 666. 648. 623. 648. 628. 621. 631. 638. 621. 620. 637. 668. 665. 646. 630. 621. 611. 608. 605. 610. 632. 652. 850. 911. 715. 744. 765. 744. 742. 835. 818. 765. 716. 809. 801. 769. 717. 832. 877. 808. 804. 859. 707. 709. 716. 729. 732. 743. 798. 775. 841. 912. 885. 807. 955. 991. 1057. 1024. 771. 676. 638. 630. 630. 629. 635. 639. 648. 655. 653. 642. 649. 652. 638. 630. 640. 629. 629. 619. 606. 604. 622. 626. 628. 631. 631. 625. 625. 
576. 568. 571. 573. 573. 574. 590. 638. 614. 634. 661. 632. 620. 653. 632. 622. 624. 635. 645. 717. 688. 636. 619. 614. 605. 610. 614. 633. 655. 855. 972. 929. 890. 871. 799. 723. 741. 840. 793. 712. 801. 806. 773. 719. 855. 826. 767. 759. 737. 705. 710. 719. 763. 839. 761. 750. 785. 897. 946. 927. 873. 912. 943. 1072. 744. 676. 662. 642. 633. 635. 630. 633. 636. 694. 704. 672. 648. 644. 634. 627. 620. 638. 617. 620. 612. 602. 607. 609. 618. 636. 640. 639. 631. 624. 
565. 569. 569. 565. 578. 578. 584. 600. 627. 678. 665. 623. 621. 618. 614. 620. 627. 635. 646. 691. 671. 638. 618. 607. 604. 614. 614. 636. 657. 782. 914. 1054. 1013. 841. 794. 724. 707. 707. 701. 722. 828. 771. 717. 696. 819. 755. 716. 699. 694. 709. 750. 753. 735. 783. 879. 808. 784. 830. 855. 1024. 1025. 883. 958. 777. 679. 659. 651. 636. 631. 632. 631. 633. 638. 692. 686. 660. 623. 636. 647. 621. 627. 624. 611. 616. 603. 621. 620. 609. 629. 646. 653. 645. 635. 630. 
561. 567. 566. 564. 571. 580. 580. 608. 613. 670. 668. 621. 630. 612. 613. 621. 629. 661. 639. 715. 632. 645. 616. 605. 600. 613. 616. 632. 651. 741. 827. 957. 1046. 925. 884. 727. 711. 694. 688. 749. 810. 725. 700. 690. 755. 759. 720. 697. 690. 712. 749. 842. 746. 761. 844. 879. 775. 820. 831. 973. 1017. 938. 938. 788. 669. 654. 646. 635. 632. 634. 632. 631. 638. 681. 669. 656. 627. 631. 651. 625. 610. 616. 603. 619. 594. 637. 636. 625. 633. 655. 655. 647. 637. 635. 
566. 567. 567. 564. 566. 571. 578. 610. 609. 656. 642. 635. 614. 608. 603. 626. 630. 651. 649. 669. 633. 613. 608. 598. 602. 615. 619. 633. 644. 664. 669. 705. 904. 825. 781. 947. 827. 756. 719. 679. 712. 731. 676. 734. 806. 737. 712. 684. 696. 768. 752. 856. 945. 903. 890. 899. 859. 848. 842. 924. 747. 703. 683. 659. 644. 642. 638. 634. 642. 655. 647. 650. 681. 630. 629. 626. 640. 613. 609. 608. 610. 608. 598. 605. 594. 621. 637. 641. 637. 669. 661. 675. 649. 668. 
562. 559. 559. 558. 566. 569. 577. 611. 627. 617. 613. 590. 590. 595. 593. 624. 620. 607. 651. 634. 607. 595. 595. 597. 606. 615. 619. 630. 643. 728. 674. 678. 753. 709. 739. 939. 922. 771. 739. 704. 670. 669. 684. 723. 708. 703. 693. 681. 688. 784. 711. 725. 778. 922. 1015. 1033. 1022. 975. 936. 698. 682. 669. 654. 630. 628. 628. 632. 635. 690. 717. 695. 637. 633. 620. 629. 636. 632. 627. 595. 600. 612. 607. 595. 592. 598. 613. 642. 673. 664. 674. 673. 713. 665. 675. 
550. 553. 548. 558. 559. 565. 579. 592. 588. 620. 626. 588. 585. 586. 588. 614. 591. 635. 623. 595. 592. 589. 592. 599. 605. 621. 621. 639. 660. 773. 719. 705. 669. 787. 832. 824. 855. 749. 731. 684. 663. 667. 761. 664. 665. 671. 672. 701. 723. 697. 698. 725. 790. 823. 783. 796. 898. 870. 773. 669. 656. 636. 629. 622. 671. 672. 656. 613. 622. 612. 614. 598. 633. 634. 618. 621. 582. 607. 610. 607. 590. 614. 606. 588. 608. 619. 632. 648. 688. 714. 705. 683. 686. 692. 
548. 546. 547. 554. 559. 562. 570. 615. 583. 619. 605. 583. 584. 589. 587. 606. 589. 634. 609. 587. 584. 588. 593. 604. 607. 622. 628. 646. 676. 741. 696. 665. 669. 771. 807. 859. 854. 797. 756. 670. 658. 667. 727. 659. 665. 688. 711. 756. 776. 698. 698. 722. 743. 755. 751. 768. 878. 794. 721. 668. 648. 634. 625. 624. 687. 638. 619. 598. 610. 604. 624. 610. 619. 636. 594. 599. 609. 598. 603. 599. 613. 597. 594. 588. 596. 616. 626. 633. 677. 714. 709. 689. 696. 709. 
544. 549. 557. 566. 562. 563. 565. 566. 583. 608. 594. 584. 578. 588. 581. 584. 589. 643. 598. 580. 590. 597. 602. 611. 620. 633. 645. 672. 779. 754. 698. 660. 699. 762. 822. 718. 727. 729. 742. 759. 656. 653. 654. 655. 691. 672. 679. 705. 773. 738. 714. 713. 728. 736. 796. 872. 883. 702. 690. 658. 640. 625. 619. 660. 595. 600. 592. 606. 601. 623. 614. 612. 597. 603. 594. 592. 578. 578. 579. 579. 582. 584. 578. 590. 606. 613. 626. 631. 666. 667. 697. 705. 707. 680. 
550. 545. 548. 550. 575. 574. 577. 584. 590. 584. 582. 575. 575. 570. 573. 584. 613. 598. 579. 587. 597. 607. 608. 619. 619. 711. 738. 838. 832. 716. 755. 678. 648. 739. 778. 746. 666. 664. 653. 680. 684. 647. 649. 659. 692. 683. 675. 706. 786. 777. 752. 739. 794. 779. 744. 777. 755. 698. 660. 645. 633. 624. 632. 635. 600. 594. 609. 595. 594. 600. 600. 575. 586. 571. 569. 570. 585. 568. 569. 571. 576. 585. 585. 601. 606. 601. 604. 628. 644. 677. 662. 683. 679. 673. 
554. 549. 551. 554. 561. 561. 573. 585. 591. 589. 587. 595. 587. 600. 601. 587. 570. 569. 585. 610. 666. 633. 675. 689. 641. 711. 778. 671. 671. 674. 647. 636. 649. 627. 628. 633. 635. 632. 633. 635. 639. 643. 645. 645. 635. 646. 661. 669. 720. 804. 855. 821. 823. 809. 812. 790. 677. 665. 663. 643. 631. 645. 690. 638. 601. 604. 603. 580. 609. 598. 584. 573. 561. 561. 561. 564. 565. 572. 585. 582. 612. 597. 604. 636. 645. 620. 626. 619. 629. 635. 643. 651. 667. 654. 
549. 544. 546. 562. 565. 568. 574. 598. 596. 593. 588. 607. 625. 616. 596. 565. 568. 574. 594. 634. 733. 658. 725. 699. 651. 760. 744. 681. 632. 674. 661. 635. 631. 621. 619. 627. 629. 628. 630. 635. 637. 641. 640. 641. 634. 635. 637. 674. 677. 731. 793. 900. 795. 875. 764. 737. 673. 658. 659. 639. 631. 657. 700. 598. 597. 609. 623. 579. 632. 590. 589. 574. 560. 558. 557. 565. 581. 587. 584. 590. 635. 614. 605. 628. 652. 630. 632. 624. 619. 630. 634. 646. 658. 645. 
550. 551. 552. 562. 571. 590. 604. 615. 652. 622. 624. 573. 578. 572. 571. 563. 571. 574. 618. 722. 728. 698. 677. 696. 646. 623. 676. 735. 698. 615. 619. 619. 617. 611. 613. 615. 619. 625. 628. 630. 634. 638. 633. 635. 625. 630. 630. 642. 656. 771. 767. 818. 907. 886. 840. 722. 673. 661. 656. 644. 645. 710. 637. 605. 602. 576. 590. 583. 595. 568. 584. 561. 553. 559. 561. 564. 580. 603. 618. 623. 626. 633. 649. 659. 663. 630. 629. 617. 618. 619. 628. 640. 639. 639. 
558. 584. 585. 586. 588. 583. 580. 586. 579. 575. 573. 567. 560. 578. 584. 597. 565. 660. 673. 761. 622. 683. 612. 600. 596. 590. 588. 592. 600. 602. 603. 606. 607. 606. 608. 611. 618. 622. 623. 627. 626. 625. 626. 624. 619. 620. 620. 629. 639. 714. 734. 739. 826. 863. 910. 744. 654. 649. 646. 658. 678. 633. 609. 606. 570. 574. 562. 559. 560. 556. 557. 554. 554. 581. 591. 578. 581. 575. 587. 604. 608. 627. 635. 650. 665. 638. 634. 631. 630. 627. 628. 635. 636. 637. 
562. 559. 556. 563. 569. 578. 585. 587. 587. 612. 595. 572. 574. 606. 625. 633. 573. 580. 608. 620. 601. 613. 594. 592. 589. 586. 581. 584. 588. 595. 595. 600. 598. 604. 605. 606. 616. 618. 618. 622. 629. 661. 634. 621. 614. 613. 616. 623. 632. 689. 670. 691. 692. 743. 834. 761. 651. 638. 644. 716. 629. 586. 604. 581. 595. 563. 565. 554. 553. 556. 553. 550. 555. 580. 605. 608. 591. 581. 586. 592. 597. 608. 619. 673. 692. 644. 640. 640. 637. 637. 638. 638. 661. 642. 
549. 553. 558. 571. 580. 585. 602. 604. 594. 627. 603. 584. 597. 566. 579. 585. 584. 584. 599. 604. 594. 590. 584. 582. 582. 580. 576. 585. 589. 593. 593. 595. 601. 606. 613. 607. 618. 633. 640. 620. 623. 636. 624. 618. 612. 613. 615. 623. 633. 652. 655. 660. 710. 713. 753. 743. 648. 636. 642. 744. 664. 581. 593. 567. 566. 562. 564. 561. 552. 554. 548. 548. 555. 576. 583. 609. 600. 589. 586. 593. 603. 619. 620. 647. 685. 653. 653. 653. 642. 643. 644. 640. 660. 666. 
559. 565. 579. 623. 631. 683. 695. 653. 629. 650. 627. 564. 556. 558. 568. 555. 551. 565. 568. 570. 577. 574. 573. 572. 574. 572. 574. 578. 584. 589. 588. 593. 595. 591. 597. 600. 602. 630. 619. 622. 610. 608. 611. 611. 608. 612. 616. 625. 631. 643. 645. 661. 743. 764. 672. 647. 632. 636. 646. 679. 593. 580. 569. 590. 555. 556. 547. 553. 549. 541. 546. 552. 576. 602. 582. 617. 610. 622. 615. 612. 627. 647. 667. 701. 714. 691. 678. 702. 681. 679. 694. 680. 675. 725. 
621. 587. 582. 629. 665. 614. 599. 575. 554. 553. 553. 546. 546. 549. 550. 550. 547. 562. 558. 565. 570. 569. 569. 565. 565. 571. 575. 579. 582. 585. 586. 590. 588. 591. 592. 595. 599. 603. 602. 611. 607. 606. 602. 605. 609. 614. 615. 623. 626. 641. 644. 679. 752. 721. 648. 634. 623. 631. 640. 724. 584. 599. 578. 588. 547. 547. 548. 548. 544. 540. 543. 547. 564. 614. 621. 618. 613. 632. 632. 638. 611. 625. 629. 710. 733. 761. 718. 727. 724. 727. 718. 708. 680. 691. 
648. 582. 565. 559. 550. 571. 554. 556. 539. 545. 540. 538. 549. 543. 544. 543. 545. 554. 556. 561. 558. 561. 561. 561. 567. 570. 572. 577. 582. 581. 583. 585. 587. 588. 591. 590. 593. 598. 607. 603. 602. 600. 600. 601. 607. 614. 615. 620. 626. 639. 647. 708. 697. 758. 648. 632. 619. 629. 642. 636. 583. 575. 587. 551. 546. 543. 540. 544. 541. 547. 547. 555. 567. 582. 597. 622. 604. 604. 627. 683. 652. 626. 620. 707. 739. 735. 704. 721. 773. 785. 767. 781. 686. 735. 
576. 555. 550. 540. 541. 547. 546. 546. 536. 540. 537. 539. 549. 541. 541. 542. 552. 553. 554. 559. 556. 559. 558. 559. 563. 570. 570. 576. 579. 581. 581. 578. 583. 585. 589. 590. 590. 593. 597. 600. 603. 598. 597. 598. 604. 610. 613. 621. 630. 642. 647. 671. 738. 682. 647. 627. 619. 630. 650. 610. 584. 564. 586. 546. 545. 542. 538. 538. 537. 543. 545. 555. 565. 593. 609. 609. 590. 614. 636. 677. 673. 632. 636. 673. 729. 730. 684. 696. 748. 792. 787. 802. 710. 757. 
530. 530. 529. 538. 533. 537. 531. 532. 527. 531. 533. 537. 538. 540. 538. 540. 543. 547. 547. 548. 552. 552. 558. 563. 564. 567. 566. 571. 571. 574. 576. 573. 577. 580. 581. 581. 582. 590. 592. 595. 594. 595. 599. 603. 610. 618. 617. 627. 636. 726. 733. 666. 738. 662. 618. 617. 621. 603. 573. 563. 567. 553. 554. 557. 541. 534. 535. 533. 546. 547. 549. 571. 568. 564. 564. 570. 580. 601. 625. 649. 696. 683. 683. 642. 658. 701. 674. 658. 695. 726. 785. 814. 795. 832. 
546. 526. 523. 524. 521. 534. 526. 524. 526. 533. 532. 533. 533. 535. 535. 536. 537. 542. 541. 547. 549. 554. 555. 558. 560. 565. 565. 566. 563. 567. 568. 570. 573. 575. 576. 583. 583. 589. 589. 593. 592. 600. 608. 610. 620. 621. 622. 632. 655. 751. 783. 709. 692. 629. 618. 609. 614. 566. 572. 567. 558. 561. 545. 552. 552. 531. 529. 534. 543. 544. 544. 557. 569. 560. 562. 565. 577. 587. 602. 620. 667. 710. 682. 676. 684. 676. 674. 651. 666. 709. 762. 734. 755. 768. 
528. 524. 519. 514. 515. 515. 519. 522. 528. 530. 531. 531. 532. 531. 533. 534. 535. 540. 543. 547. 546. 547. 554. 555. 556. 561. 560. 560. 562. 566. 569. 573. 576. 581. 583. 589. 592. 601. 602. 607. 605. 606. 618. 622. 629. 635. 638. 657. 686. 688. 689. 736. 649. 615. 607. 608. 576. 561. 556. 558. 569. 577. 553. 552. 537. 533. 531. 533. 540. 543. 542. 548. 549. 553. 559. 564. 576. 583. 603. 648. 668. 691. 687. 686. 703. 649. 655. 646. 668. 706. 721. 747. 690. 715. 
507. 507. 505. 513. 514. 513. 516. 517. 524. 524. 527. 527. 526. 531. 532. 530. 536. 538. 541. 543. 544. 549. 549. 553. 555. 555. 556. 557. 563. 572. 583. 576. 580. 588. 589. 598. 599. 610. 611. 622. 688. 708. 691. 671. 649. 654. 657. 647. 672. 685. 649. 651. 604. 607. 600. 627. 567. 554. 553. 549. 546. 558. 541. 542. 531. 534. 528. 531. 539. 539. 541. 550. 547. 553. 558. 562. 581. 589. 601. 626. 691. 690. 702. 707. 730. 664. 658. 634. 675. 703. 733. 741. 753. 683. 
504. 504. 504. 507. 511. 511. 511. 516. 517. 525. 522. 525. 526. 529. 528. 531. 534. 535. 538. 539. 544. 546. 549. 550. 551. 553. 557. 562. 564. 574. 573. 582. 590. 591. 592. 604. 609. 635. 641. 695. 652. 711. 775. 678. 683. 769. 731. 702. 645. 641. 615. 608. 600. 593. 625. 581. 556. 554. 552. 547. 543. 550. 551. 532. 535. 527. 527. 531. 534. 538. 538. 543. 543. 547. 548. 550. 595. 608. 604. 659. 713. 681. 729. 713. 672. 657. 636. 623. 651. 680. 683. 721. 761. 726. 
502. 503. 506. 507. 509. 511. 518. 518. 524. 526. 525. 524. 524. 527. 530. 531. 531. 539. 539. 541. 544. 544. 546. 550. 552. 555. 557. 563. 568. 580. 580. 586. 594. 601. 599. 607. 615. 657. 698. 723. 787. 728. 739. 747. 791. 859. 850. 680. 597. 590. 585. 588. 593. 614. 580. 562. 542. 547. 539. 540. 540. 532. 533. 528. 527. 522. 523. 533. 537. 537. 535. 538. 541. 544. 540. 546. 568. 594. 583. 619. 656. 700. 728. 698. 658. 653. 643. 629. 632. 641. 676. 715. 765. 699. 
501. 504. 508. 512. 514. 518. 514. 513. 516. 518. 520. 528. 537. 540. 541. 540. 543. 542. 543. 544. 542. 547. 547. 549. 551. 556. 558. 566. 576. 584. 590. 595. 606. 628. 615. 650. 652. 656. 645. 794. 766. 608. 587. 593. 621. 620. 619. 604. 585. 576. 596. 598. 560. 544. 541. 538. 552. 537. 528. 522. 523. 522. 520. 523. 519. 524. 529. 527. 536. 536. 534. 533. 535. 538. 541. 554. 555. 574. 567. 576. 588. 596. 639. 717. 717. 638. 650. 618. 625. 643. 634. 667. 691. 703. 
502. 506. 506. 518. 512. 520. 510. 517. 515. 521. 529. 521. 534. 533. 535. 539. 546. 549. 547. 546. 545. 545. 544. 549. 551. 557. 558. 567. 578. 595. 597. 597. 622. 674. 617. 717. 710. 641. 667. 770. 744. 617. 584. 580. 604. 610. 611. 596. 589. 552. 598. 577. 545. 543. 536. 562. 538. 526. 527. 523. 520. 516. 520. 515. 518. 523. 523. 524. 534. 534. 535. 528. 532. 538. 550. 549. 548. 564. 563. 570. 586. 595. 612. 678. 708. 672. 661. 609. 625. 643. 634. 652. 658. 675. 
503. 503. 507. 521. 522. 516. 524. 528. 523. 521. 523. 533. 532. 542. 543. 541. 555. 557. 555. 550. 553. 553. 550. 549. 551. 557. 557. 570. 596. 669. 711. 647. 709. 658. 639. 661. 775. 728. 699. 769. 664. 592. 577. 599. 611. 610. 610. 597. 596. 547. 545. 539. 554. 539. 531. 537. 525. 535. 530. 517. 518. 518. 514. 514. 523. 521. 522. 526. 528. 533. 528. 534. 536. 540. 546. 538. 545. 552. 553. 564. 573. 571. 590. 629. 689. 653. 643. 615. 611. 616. 643. 625. 632. 652. 
513. 511. 510. 517. 525. 519. 524. 531. 534. 533. 541. 544. 548. 547. 551. 556. 564. 577. 582. 607. 569. 580. 596. 565. 555. 565. 560. 578. 582. 649. 689. 677. 694. 660. 678. 767. 775. 664. 615. 603. 568. 557. 570. 582. 549. 539. 540. 545. 542. 542. 550. 534. 533. 538. 542. 543. 520. 520. 511. 518. 510. 509. 511. 513. 521. 524. 526. 523. 524. 522. 523. 523. 525. 532. 533. 537. 557. 552. 554. 559. 562. 566. 567. 582. 638. 623. 603. 619. 631. 613. 611. 614. 627. 625. 
520. 519. 517. 512. 520. 524. 530. 537. 548. 546. 546. 554. 558. 560. 555. 569. 629. 643. 643. 608. 570. 624. 615. 566. 551. 553. 554. 568. 566. 566. 580. 603. 613. 586. 573. 588. 571. 590. 575. 564. 549. 545. 559. 579. 537. 542. 526. 559. 525. 532. 533. 546. 534. 524. 518. 513. 517. 515. 512. 512. 511. 508. 511. 516. 519. 518. 516. 514. 519. 520. 519. 526. 528. 530. 535. 539. 544. 544. 546. 550. 558. 561. 563. 568. 573. 580. 589. 614. 615. 619. 624. 624. 625. 619. 
523. 519. 517. 517. 517. 522. 533. 545. 555. 563. 560. 600. 611. 566. 567. 570. 674. 638. 652. 600. 569. 577. 590. 568. 547. 552. 553. 556. 555. 553. 575. 576. 578. 575. 565. 563. 567. 573. 574. 554. 545. 548. 563. 570. 533. 527. 529. 515. 528. 539. 552. 535. 529. 521. 519. 511. 512. 510. 508. 513. 510. 509. 508. 516. 517. 517. 516. 514. 519. 520. 521. 527. 534. 536. 537. 536. 542. 544. 547. 550. 555. 558. 562. 568. 571. 580. 598. 620. 614. 640. 638. 632. 627. 622. 
513. 517. 520. 524. 521. 520. 532. 608. 652. 646. 613. 566. 604. 594. 590. 608. 629. 573. 590. 565. 555. 539. 544. 537. 541. 555. 568. 566. 553. 544. 553. 562. 573. 565. 553. 547. 572. 581. 576. 563. 534. 548. 561. 537. 519. 518. 514. 522. 543. 525. 534. 539. 517. 513. 512. 519. 507. 504. 504. 506. 508. 507. 509. 529. 522. 516. 512. 518. 524. 524. 521. 530. 529. 531. 534. 538. 544. 547. 547. 550. 557. 561. 563. 570. 577. 585. 588. 608. 685. 665. 662. 642. 650. 633. 
524. 529. 541. 539. 547. 547. 528. 533. 532. 537. 537. 529. 539. 546. 536. 526. 542. 544. 542. 530. 525. 520. 512. 509. 512. 514. 516. 513. 519. 523. 531. 520. 531. 529. 526. 529. 520. 524. 519. 522. 523. 521. 516. 507. 533. 501. 503. 521. 502. 505. 506. 510. 511. 503. 511. 513. 511. 498. 502. 507. 502. 512. 508. 512. 510. 510. 512. 516. 521. 523. 528. 532. 526. 534. 536. 543. 544. 546. 551. 557. 557. 560. 564. 587. 620. 599. 619. 616. 689. 680. 675. 710. 682. 694. 
522. 572. 583. 571. 552. 543. 536. 520. 516. 517. 520. 542. 561. 552. 559. 556. 508. 506. 507. 521. 505. 506. 511. 508. 504. 509. 508. 506. 511. 515. 514. 519. 524. 524. 520. 519. 512. 514. 516. 523. 522. 508. 511. 513. 497. 497. 507. 498. 494. 501. 502. 511. 511. 507. 504. 506. 503. 504. 500. 501. 504. 507. 507. 507. 511. 514. 513. 516. 519. 522. 527. 537. 537. 537. 535. 535. 543. 548. 549. 553. 557. 558. 565. 574. 616. 605. 600. 641. 649. 649. 636. 694. 703. 647. 
525. 592. 587. 595. 565. 550. 546. 524. 514. 541. 547. 571. 565. 523. 526. 510. 502. 503. 508. 518. 498. 503. 508. 502. 502. 507. 509. 503. 507. 512. 511. 518. 520. 521. 520. 521. 510. 512. 516. 519. 510. 506. 513. 516. 494. 497. 507. 498. 494. 499. 504. 511. 508. 501. 500. 506. 503. 505. 497. 498. 507. 505. 505. 505. 516. 516. 517. 523. 523. 519. 525. 532. 539. 539. 538. 536. 539. 543. 548. 552. 557. 559. 560. 567. 588. 593. 599. 606. 623. 622. 633. 726. 709. 634. 
528. 558. 571. 626. 558. 526. 517. 518. 518. 497. 511. 505. 519. 501. 498. 504. 506. 494. 497. 505. 490. 488. 504. 509. 502. 492. 491. 502. 507. 504. 506. 512. 516. 510. 513. 512. 504. 504. 508. 499. 505. 499. 497. 499. 491. 493. 493. 495. 492. 499. 498. 499. 499. 492. 499. 500. 516. 497. 493. 498. 504. 510. 502. 515. 526. 523. 519. 523. 529. 529. 525. 531. 532. 542. 543. 546. 547. 544. 548. 549. 560. 566. 566. 569. 576. 595. 583. 583. 596. 599. 626. 633. 621. 624. 
536. 537. 552. 550. 531. 531. 571. 551. 514. 499. 499. 491. 489. 493. 499. 482. 508. 494. 502. 483. 478. 480. 487. 489. 493. 495. 499. 500. 501. 506. 506. 508. 517. 508. 519. 506. 505. 502. 500. 501. 495. 489. 492. 499. 490. 490. 485. 492. 490. 494. 496. 498. 492. 493. 502. 496. 494. 498. 503. 501. 502. 507. 510. 510. 521. 521. 522. 527. 529. 538. 536. 535. 536. 537. 539. 549. 549. 550. 555. 557. 555. 573. 612. 575. 584. 627. 602. 616. 591. 605. 617. 620. 610. 616. 
530. 577. 597. 531. 536. 572. 528. 516. 505. 496. 503. 499. 493. 495. 489. 482. 481. 505. 502. 476. 475. 479. 486. 494. 494. 497. 508. 505. 506. 508. 510. 513. 515. 508. 504. 505. 498. 495. 491. 497. 485. 486. 493. 488. 489. 490. 485. 486. 498. 498. 491. 490. 491. 496. 491. 490. 495. 501. 504. 512. 507. 509. 513. 526. 511. 512. 513. 516. 529. 522. 524. 534. 548. 542. 548. 545. 554. 555. 551. 558. 563. 598. 647. 584. 605. 628. 657. 653. 607. 603. 634. 607. 614. 598. 
557. 570. 541. 525. 523. 520. 521. 504. 499. 502. 504. 497. 502. 488. 485. 487. 478. 481. 498. 475. 482. 496. 495. 485. 494. 497. 508. 505. 507. 510. 510. 509. 512. 518. 516. 495. 505. 503. 492. 501. 487. 486. 486. 489. 485. 482. 487. 490. 495. 507. 498. 486. 489. 488. 487. 491. 499. 507. 504. 514. 513. 508. 512. 521. 515. 512. 516. 518. 521. 526. 523. 532. 541. 552. 547. 541. 557. 556. 558. 562. 573. 592. 640. 626. 590. 628. 633. 627. 618. 604. 624. 608. 599. 599. 
549. 542. 541. 545. 528. 517. 508. 505. 507. 508. 510. 525. 505. 496. 498. 486. 483. 486. 491. 470. 481. 490. 491. 493. 498. 500. 497. 499. 502. 501. 505. 510. 507. 506. 501. 494. 490. 488. 486. 480. 491. 484. 476. 478. 475. 476. 490. 481. 480. 490. 488. 490. 490. 491. 493. 496. 494. 502. 500. 501. 512. 511. 514. 520. 520. 525. 522. 523. 526. 526. 538. 539. 554. 554. 571. 587. 550. 572. 568. 560. 567. 576. 588. 613. 621. 610. 612. 619. 620. 620. 622. 640. 615. 599. 
540. 540. 538. 532. 541. 519. 538. 507. 509. 519. 512. 511. 497. 497. 498. 487. 485. 493. 498. 475. 493. 490. 488. 509. 522. 521. 518. 516. 519. 512. 514. 513. 517. 500. 494. 495. 502. 493. 490. 481. 483. 489. 475. 478. 478. 478. 479. 485. 486. 491. 495. 494. 493. 495. 499. 498. 501. 505. 504. 505. 516. 518. 512. 525. 531. 571. 578. 533. 547. 532. 536. 557. 557. 553. 564. 597. 566. 590. 595. 573. 570. 588. 602. 599. 620. 706. 720. 676. 663. 640. 635. 627. 659. 630. 
554. 545. 536. 540. 531. 529. 523. 515. 527. 516. 507. 507. 510. 502. 503. 504. 487. 500. 499. 470. 491. 490. 506. 524. 535. 531. 524. 512. 529. 521. 514. 505. 510. 495. 494. 498. 484. 491. 487. 478. 483. 476. 482. 473. 478. 481. 483. 488. 489. 490. 490. 498. 499. 499. 499. 504. 503. 510. 519. 509. 517. 517. 516. 538. 551. 562. 565. 544. 548. 544. 555. 617. 623. 594. 567. 602. 603. 584. 575. 592. 572. 586. 592. 622. 671. 697. 692. 721. 687. 733. 729. 648. 613. 606. 
564. 543. 545. 540. 531. 529. 523. 520. 522. 510. 506. 502. 505. 504. 511. 515. 495. 500. 497. 495. 494. 476. 493. 509. 536. 547. 545. 536. 532. 523. 527. 511. 508. 504. 505. 490. 486. 486. 481. 479. 478. 475. 476. 478. 485. 486. 486. 493. 493. 494. 498. 499. 507. 502. 505. 515. 515. 510. 510. 516. 518. 524. 519. 559. 583. 570. 577. 582. 593. 583. 580. 619. 619. 613. 606. 605. 577. 574. 568. 573. 580. 600. 610. 609. 617. 665. 689. 699. 635. 632. 625. 625. 599. 590. 
558. 547. 532. 532. 522. 547. 534. 524. 547. 538. 521. 499. 510. 517. 547. 521. 510. 500. 495. 493. 472. 471. 502. 517. 527. 551. 557. 548. 543. 531. 526. 530. 521. 526. 528. 515. 499. 508. 496. 493. 474. 472. 472. 493. 488. 482. 483. 498. 505. 498. 502. 504. 507. 505. 509. 528. 563. 520. 521. 516. 522. 530. 526. 536. 580. 555. 557. 550. 555. 563. 561. 560. 567. 582. 577. 583. 578. 576. 574. 580. 589. 622. 604. 614. 660. 669. 648. 652. 625. 616. 605. 600. 591. 589. 
573. 553. 534. 573. 533. 518. 548. 518. 555. 518. 514. 501. 494. 496. 501. 530. 520. 507. 500. 485. 461. 466. 488. 495. 510. 532. 534. 538. 543. 544. 547. 534. 531. 529. 535. 511. 510. 486. 493. 485. 476. 474. 469. 473. 507. 488. 490. 491. 498. 498. 502. 505. 522. 508. 528. 555. 597. 576. 568. 529. 533. 540. 532. 530. 536. 538. 539. 543. 547. 548. 551. 563. 573. 581. 582. 589. 587. 579. 579. 598. 588. 598. 602. 649. 652. 629. 624. 618. 612. 612. 605. 607. 604. 597. 
551. 566. 565. 555. 523. 519. 510. 516. 518. 527. 511. 500. 499. 493. 498. 481. 503. 530. 533. 490. 493. 462. 499. 511. 523. 520. 511. 524. 536. 547. 539. 524. 514. 510. 526. 515. 488. 492. 476. 477. 472. 464. 470. 478. 479. 495. 482. 488. 494. 505. 511. 538. 516. 540. 520. 543. 538. 542. 540. 545. 550. 539. 538. 543. 542. 541. 543. 549. 560. 583. 625. 682. 679. 661. 664. 681. 635. 602. 586. 586. 620. 604. 607. 618. 621. 633. 632. 631. 665. 637. 645. 665. 735. 685. 
548. 574. 580. 536. 518. 510. 508. 515. 523. 514. 514. 509. 507. 500. 506. 494. 478. 526. 527. 514. 492. 462. 464. 515. 523. 511. 511. 511. 533. 546. 536. 531. 529. 519. 519. 501. 500. 499. 490. 467. 472. 465. 469. 477. 476. 480. 482. 493. 500. 514. 533. 538. 525. 566. 521. 527. 542. 548. 546. 558. 555. 540. 540. 544. 544. 549. 546. 563. 597. 640. 632. 626. 623. 636. 636. 641. 621. 605. 605. 594. 599. 606. 616. 619. 630. 649. 645. 652. 713. 686. 660. 628. 738. 738. 
551. 521. 520. 530. 510. 504. 506. 516. 534. 508. 509. 510. 513. 508. 527. 494. 491. 495. 474. 507. 473. 482. 459. 467. 505. 483. 511. 498. 537. 538. 543. 534. 519. 514. 498. 510. 483. 483. 483. 465. 468. 464. 474. 471. 483. 491. 502. 534. 508. 533. 545. 563. 521. 532. 528. 537. 548. 556. 554. 607. 591. 594. 588. 581. 575. 556. 562. 607. 601. 590. 599. 621. 625. 642. 645. 642. 636. 625. 613. 620. 605. 613. 629. 664. 685. 717. 689. 697. 664. 708. 652. 614. 675. 621. 
550. 496. 504. 493. 504. 502. 508. 522. 525. 516. 515. 528. 544. 532. 522. 510. 529. 510. 505. 535. 482. 453. 493. 485. 474. 463. 484. 515. 511. 489. 504. 522. 524. 528. 525. 517. 499. 469. 478. 461. 478. 472. 471. 481. 492. 504. 506. 532. 578. 588. 598. 584. 557. 535. 537. 585. 611. 605. 597. 591. 606. 676. 648. 602. 585. 585. 586. 610. 644. 622. 651. 730. 646. 652. 712. 689. 704. 696. 734. 689. 625. 655. 664. 787. 735. 665. 675. 614. 613. 604. 596. 580. 579. 568. 
504. 499. 488. 491. 500. 507. 527. 554. 533. 519. 518. 524. 538. 531. 531. 546. 542. 569. 571. 607. 547. 468. 448. 471. 443. 459. 471. 529. 548. 516. 509. 504. 515. 497. 514. 523. 521. 476. 480. 460. 468. 489. 475. 479. 494. 497. 521. 549. 577. 545. 554. 562. 553. 566. 573. 601. 608. 608. 629. 637. 686. 755. 803. 640. 592. 587. 599. 607. 646. 658. 640. 669. 638. 593. 592. 591. 595. 602. 605. 627. 600. 607. 605. 612. 598. 605. 603. 591. 591. 603. 590. 582. 574. 582. 
494. 487. 484. 493. 503. 525. 528. 548. 539. 522. 522. 529. 532. 551. 542. 541. 573. 580. 629. 638. 554. 478. 493. 440. 457. 490. 489. 487. 526. 544. 531. 513. 510. 519. 520. 498. 490. 486. 474. 458. 468. 489. 492. 482. 497. 504. 503. 547. 542. 558. 569. 556. 563. 589. 604. 610. 606. 613. 633. 732. 708. 724. 794. 662. 594. 579. 588. 602. 604. 639. 612. 594. 587. 581. 585. 582. 588. 578. 588. 576. 576. 583. 583. 593. 586. 593. 588. 582. 589. 604. 580. 578. 567. 576. 
480. 494. 490. 507. 510. 549. 585. 573. 547. 541. 523. 542. 550. 562. 565. 590. 614. 613. 571. 592. 530. 501. 464. 487. 438. 496. 520. 508. 499. 512. 523. 543. 529. 538. 533. 495. 479. 451. 453. 471. 467. 473. 489. 526. 544. 591. 574. 572. 542. 549. 548. 652. 630. 603. 620. 640. 746. 795. 722. 756. 746. 666. 626. 604. 593. 580. 576. 572. 568. 571. 572. 568. 562. 561. 561. 565. 559. 565. 559. 560. 564. 564. 565. 570. 572. 567. 563. 567. 579. 587. 602. 617. 563. 600. 
489. 495. 499. 534. 547. 570. 581. 600. 561. 559. 533. 545. 555. 578. 598. 646. 649. 595. 596. 551. 541. 524. 470. 459. 477. 469. 462. 505. 491. 484. 489. 513. 540. 505. 526. 488. 464. 449. 453. 496. 477. 479. 477. 491. 524. 562. 598. 622. 584. 538. 561. 637. 601. 655. 658. 672. 902. 824. 811. 668. 658. 627. 619. 606. 600. 586. 584. 577. 559. 561. 561. 562. 558. 556. 560. 559. 553. 552. 556. 554. 556. 561. 561. 566. 561. 576. 579. 592. 610. 601. 576. 571. 565. 573. 
506. 517. 529. 529. 521. 545. 558. 583. 613. 576. 550. 535. 593. 629. 594. 615. 636. 607. 572. 568. 543. 510. 496. 474. 448. 457. 453. 476. 481. 480. 490. 480. 541. 517. 508. 500. 468. 450. 453. 484. 468. 481. 470. 484. 550. 576. 592. 562. 588. 550. 553. 647. 608. 810. 859. 882. 820. 729. 793. 705. 677. 606. 602. 603. 591. 585. 578. 573. 578. 561. 557. 555. 552. 549. 549. 552. 549. 546. 549. 550. 550. 549. 548. 554. 552. 556. 557. 553. 562. 562. 562. 559. 569. 568. 
509. 543. 556. 558. 548. 553. 545. 573. 605. 608. 574. 501. 566. 581. 563. 617. 668. 600. 615. 597. 557. 513. 502. 493. 441. 477. 477. 483. 478. 488. 471. 482. 522. 514. 504. 487. 469. 449. 450. 461. 471. 467. 477. 477. 520. 569. 590. 546. 581. 567. 576. 605. 616. 816. 869. 950. 873. 857. 878. 762. 676. 620. 598. 599. 593. 576. 579. 565. 592. 560. 554. 548. 546. 546. 545. 548. 542. 540. 543. 546. 549. 548. 549. 551. 547. 552. 553. 552. 562. 557. 558. 559. 563. 574. 
549. 584. 575. 582. 555. 587. 616. 634. 633. 602. 580. 506. 505. 526. 515. 524. 539. 579. 611. 549. 505. 503. 485. 461. 465. 427. 442. 450. 465. 454. 464. 469. 478. 485. 508. 486. 462. 487. 482. 465. 463. 482. 472. 476. 482. 495. 498. 534. 550. 520. 522. 534. 638. 648. 675. 731. 863. 844. 824. 829. 756. 610. 599. 580. 577. 564. 564. 556. 553. 568. 562. 551. 544. 538. 537. 533. 533. 536. 537. 539. 547. 552. 546. 547. 543. 544. 546. 548. 549. 556. 556. 560. 561. 564. 
598. 615. 655. 596. 596. 567. 652. 659. 710. 703. 639. 533. 495. 534. 554. 567. 619. 661. 596. 557. 490. 477. 472. 466. 453. 439. 426. 434. 466. 471. 463. 446. 462. 452. 476. 497. 507. 447. 454. 476. 459. 461. 462. 478. 476. 491. 486. 489. 503. 498. 532. 514. 534. 577. 626. 615. 701. 672. 662. 710. 707. 747. 693. 609. 582. 569. 566. 566. 547. 547. 553. 566. 561. 548. 535. 530. 531. 531. 539. 546. 540. 540. 540. 540. 542. 551. 558. 559. 564. 569. 568. 563. 564. 570. 
549. 632. 652. 624. 632. 630. 601. 725. 769. 628. 568. 542. 491. 501. 515. 617. 571. 612. 595. 596. 558. 544. 508. 491. 492. 470. 455. 430. 468. 454. 442. 443. 436. 465. 465. 463. 435. 491. 482. 464. 465. 472. 468. 476. 473. 476. 479. 491. 494. 492. 498. 509. 520. 527. 531. 590. 643. 606. 608. 622. 647. 647. 668. 720. 604. 595. 584. 576. 558. 561. 539. 531. 534. 554. 535. 532. 530. 539. 535. 530. 536. 537. 538. 541. 544. 549. 551. 552. 565. 570. 570. 573. 569. 571. 
618. 646. 622. 690. 727. 687. 647. 665. 845. 644. 603. 543. 509. 485. 491. 559. 498. 533. 539. 564. 598. 559. 537. 530. 538. 466. 432. 424. 481. 443. 428. 427. 430. 430. 442. 443. 443. 444. 465. 472. 510. 506. 480. 491. 491. 495. 496. 487. 492. 488. 490. 498. 519. 513. 517. 531. 552. 558. 577. 628. 624. 606. 604. 619. 598. 616. 628. 634. 597. 562. 554. 542. 526. 528. 532. 525. 524. 526. 526. 529. 535. 546. 549. 554. 557. 555. 555. 559. 562. 570. 572. 581. 575. 576. 
559. 606. 652. 697. 790. 806. 730. 623. 812. 712. 667. 563. 472. 453. 459. 501. 498. 509. 536. 580. 651. 574. 628. 589. 479. 422. 419. 420. 443. 428. 425. 416. 420. 426. 426. 427. 439. 488. 475. 488. 466. 477. 508. 500. 531. 523. 521. 525. 514. 503. 491. 496. 510. 511. 519. 518. 528. 534. 542. 551. 543. 572. 589. 593. 581. 574. 587. 602. 647. 642. 626. 557. 531. 524. 525. 516. 548. 597. 586. 556. 545. 544. 544. 554. 563. 562. 558. 560. 573. 571. 577. 584. 580. 580. 
701. 640. 630. 730. 834. 852. 779. 686. 731. 755. 684. 523. 504. 476. 458. 471. 521. 527. 559. 618. 690. 647. 546. 442. 448. 413. 419. 440. 451. 415. 427. 441. 439. 470. 456. 492. 490. 465. 488. 521. 496. 491. 500. 491. 489. 499. 516. 546. 555. 557. 539. 524. 519. 517. 520. 524. 531. 528. 529. 533. 535. 539. 538. 535. 567. 564. 557. 573. 570. 594. 610. 591. 559. 516. 517. 519. 525. 534. 536. 576. 593. 575. 556. 558. 562. 565. 565. 567. 566. 569. 583. 587. 595. 587. 
619. 712. 736. 825. 706. 586. 601. 605. 616. 641. 643. 500. 503. 521. 505. 460. 486. 517. 505. 464. 485. 464. 434. 421. 426. 442. 411. 444. 419. 431. 439. 433. 432. 430. 427. 437. 440. 472. 470. 511. 548. 541. 545. 544. 535. 530. 528. 516. 516. 522. 522. 547. 569. 578. 576. 560. 548. 539. 521. 527. 533. 536. 525. 523. 524. 521. 521. 533. 535. 552. 571. 527. 526. 536. 523. 519. 533. 542. 566. 552. 549. 561. 557. 560. 570. 585. 572. 575. 594. 600. 604. 588. 599. 597. 
563. 617. 644. 744. 726. 594. 528. 547. 553. 584. 598. 504. 506. 528. 487. 435. 462. 450. 446. 455. 438. 431. 426. 429. 435. 409. 406. 409. 414. 435. 442. 432. 447. 446. 446. 435. 441. 446. 453. 471. 478. 506. 528. 547. 569. 551. 540. 558. 538. 535. 531. 533. 544. 556. 548. 540. 542. 527. 530. 539. 537. 533. 537. 522. 525. 518. 520. 518. 525. 525. 524. 529. 522. 531. 519. 536. 543. 558. 548. 569. 550. 568. 564. 569. 567. 577. 576. 579. 621. 637. 640. 599. 602. 608. 
616. 690. 697. 677. 641. 551. 522. 514. 512. 535. 555. 527. 549. 484. 476. 430. 435. 438. 433. 437. 460. 441. 444. 427. 412. 406. 406. 458. 411. 410. 416. 420. 426. 435. 436. 452. 445. 478. 470. 473. 459. 462. 470. 469. 502. 530. 589. 590. 571. 546. 540. 544. 557. 529. 542. 529. 525. 512. 523. 561. 569. 542. 535. 522. 516. 524. 515. 515. 518. 519. 517. 516. 528. 545. 536. 510. 546. 585. 630. 607. 575. 560. 565. 574. 577. 590. 593. 587. 587. 594. 600. 603. 612. 613. 
619. 642. 605. 673. 725. 632. 537. 526. 518. 487. 509. 540. 542. 450. 438. 425. 436. 417. 426. 423. 418. 420. 418. 416. 410. 409. 427. 446. 421. 415. 415. 417. 415. 422. 422. 425. 423. 430. 429. 436. 443. 444. 451. 458. 491. 502. 504. 490. 481. 543. 550. 585. 565. 533. 530. 511. 510. 505. 523. 513. 521. 544. 552. 536. 541. 530. 538. 512. 504. 508. 512. 511. 513. 507. 516. 505. 546. 562. 551. 592. 700. 671. 651. 595. 599. 607. 613. 603. 597. 611. 602. 611. 622. 625. 
527. 522. 506. 613. 629. 631. 602. 548. 534. 509. 486. 531. 450. 438. 426. 466. 429. 423. 417. 416. 427. 419. 424. 416. 400. 432. 437. 430. 426. 414. 418. 423. 428. 425. 434. 438. 436. 438. 436. 440. 435. 438. 443. 447. 450. 453. 456. 493. 488. 468. 469. 485. 510. 502. 513. 524. 530. 517. 499. 514. 539. 527. 521. 540. 552. 524. 523. 531. 510. 503. 506. 511. 510. 506. 504. 507. 519. 561. 574. 578. 599. 642. 645. 678. 658. 612. 625. 614. 607. 620. 621. 613. 622. 625. 
528. 481. 472. 543. 587. 620. 637. 583. 545. 541. 480. 500. 459. 424. 426. 472. 414. 417. 417. 414. 414. 445. 408. 402. 398. 454. 452. 415. 418. 417. 425. 427. 421. 429. 429. 442. 447. 460. 451. 446. 445. 441. 451. 444. 450. 449. 450. 451. 459. 484. 480. 475. 481. 491. 495. 495. 516. 494. 522. 516. 511. 516. 529. 525. 538. 550. 539. 514. 529. 504. 509. 509. 505. 500. 501. 501. 511. 524. 548. 571. 589. 599. 643. 724. 708. 665. 631. 627. 622. 623. 627. 619. 623. 631. 
489. 454. 462. 547. 526. 583. 568. 584. 588. 556. 488. 459. 435. 427. 449. 414. 409. 411. 414. 417. 410. 404. 402. 401. 395. 461. 450. 404. 409. 448. 437. 447. 431. 432. 433. 432. 454. 450. 450. 448. 459. 464. 458. 449. 451. 448. 445. 448. 452. 456. 456. 468. 479. 486. 483. 484. 492. 488. 495. 524. 535. 526. 523. 519. 518. 512. 519. 512. 536. 502. 500. 499. 504. 503. 504. 507. 519. 519. 515. 529. 570. 587. 584. 635. 700. 718. 714. 729. 663. 639. 640. 632. 634. 643. 
439. 446. 456. 527. 519. 504. 488. 519. 538. 459. 464. 442. 427. 452. 436. 407. 407. 414. 413. 402. 398. 394. 391. 422. 454. 409. 406. 409. 438. 418. 423. 435. 461. 444. 450. 422. 440. 439. 460. 460. 476. 472. 438. 443. 460. 456. 491. 517. 492. 506. 502. 499. 473. 475. 473. 478. 483. 482. 485. 488. 491. 530. 518. 549. 542. 530. 512. 503. 496. 514. 518. 497. 508. 494. 495. 498. 512. 513. 515. 519. 530. 577. 572. 592. 598. 630. 704. 825. 810. 674. 691. 665. 708. 681. 
424. 442. 468. 501. 518. 508. 500. 464. 462. 454. 430. 433. 444. 418. 416. 407. 401. 408. 401. 404. 403. 395. 407. 423. 398. 399. 400. 414. 426. 440. 441. 440. 418. 416. 423. 416. 422. 445. 437. 427. 426. 429. 473. 480. 491. 513. 501. 500. 513. 493. 533. 516. 498. 465. 469. 473. 480. 480. 480. 479. 485. 493. 502. 558. 570. 543. 555. 533. 505. 493. 493. 502. 499. 507. 511. 511. 503. 509. 517. 518. 528. 532. 535. 573. 600. 614. 643. 721. 769. 698. 727. 757. 750. 661. 
419. 450. 448. 478. 494. 491. 535. 465. 465. 432. 423. 431. 414. 414. 412. 411. 405. 398. 408. 402. 408. 396. 393. 400. 392. 398. 410. 412. 411. 421. 417. 419. 416. 414. 413. 438. 433. 433. 428. 423. 428. 440. 446. 449. 474. 495. 518. 522. 530. 484. 500. 484. 472. 466. 461. 475. 479. 478. 479. 479. 483. 496. 494. 509. 537. 543. 541. 550. 499. 493. 490. 493. 487. 497. 498. 507. 504. 508. 514. 518. 527. 532. 535. 573. 598. 614. 627. 669. 774. 747. 742. 863. 720. 666. 
408. 419. 438. 438. 446. 524. 484. 463. 421. 410. 411. 403. 399. 429. 435. 408. 397. 392. 390. 416. 392. 389. 416. 397. 399. 404. 408. 401. 416. 405. 414. 410. 412. 407. 410. 429. 426. 423. 419. 435. 426. 434. 439. 438. 444. 456. 442. 459. 469. 463. 452. 462. 451. 468. 464. 474. 473. 475. 475. 472. 473. 480. 482. 490. 494. 499. 514. 528. 529. 502. 489. 491. 489. 494. 494. 499. 516. 527. 515. 520. 532. 537. 537. 549. 556. 588. 589. 606. 693. 900. 910. 888. 739. 688. 
425. 427. 414. 427. 444. 472. 448. 462. 408. 405. 406. 413. 395. 413. 409. 398. 396. 386. 384. 387. 405. 402. 414. 405. 396. 392. 395. 396. 402. 403. 401. 410. 405. 408. 415. 430. 415. 418. 420. 430. 421. 423. 425. 431. 435. 428. 430. 451. 453. 465. 446. 451. 455. 462. 465. 507. 471. 470. 471. 472. 472. 474. 476. 481. 487. 490. 493. 527. 519. 514. 514. 485. 487. 489. 490. 494. 508. 533. 527. 517. 528. 540. 539. 557. 558. 575. 614. 614. 647. 764. 854. 883. 714. 744. 
416. 405. 428. 465. 511. 444. 444. 438. 401. 401. 408. 396. 396. 400. 420. 394. 392. 393. 384. 395. 405. 400. 410. 402. 396. 395. 396. 398. 397. 395. 399. 402. 409. 403. 406. 411. 413. 419. 423. 426. 417. 419. 418. 425. 424. 443. 442. 437. 436. 440. 438. 453. 452. 484. 489. 471. 472. 469. 467. 470. 467. 469. 471. 478. 487. 487. 488. 501. 535. 510. 491. 484. 483. 488. 490. 499. 500. 530. 509. 520. 525. 532. 537. 555. 561. 574. 599. 637. 631. 663. 687. 772. 736. 759. 
427. 405. 406. 460. 445. 455. 458. 413. 400. 395. 403. 386. 395. 425. 408. 387. 388. 382. 385. 390. 392. 402. 394. 400. 392. 397. 399. 399. 402. 400. 400. 400. 401. 403. 404. 423. 422. 426. 414. 415. 415. 420. 421. 427. 429. 426. 429. 430. 438. 438. 442. 465. 469. 508. 488. 489. 473. 467. 467. 468. 467. 469. 471. 476. 496. 481. 484. 488. 523. 511. 511. 483. 485. 497. 497. 491. 501. 512. 512. 513. 525. 528. 536. 554. 566. 575. 580. 640. 639. 650. 657. 693. 689. 719. 
400. 399. 403. 475. 441. 446. 457. 417. 397. 400. 406. 382. 411. 427. 394. 381. 386. 383. 382. 389. 387. 401. 394. 394. 390. 398. 396. 401. 415. 399. 417. 400. 404. 412. 408. 410. 412. 412. 413. 412. 415. 427. 428. 437. 440. 437. 430. 437. 434. 444. 447. 475. 498. 497. 476. 474. 468. 466. 462. 462. 463. 463. 465. 469. 471. 479. 478. 480. 482. 512. 497. 484. 481. 483. 488. 492. 500. 504. 529. 557. 523. 527. 546. 546. 578. 578. 597. 588. 689. 650. 650. 670. 684. 869. 
392. 398. 402. 427. 425. 460. 461. 420. 398. 419. 407. 383. 408. 400. 382. 380. 390. 380. 388. 382. 393. 390. 386. 389. 392. 417. 416. 403. 436. 408. 411. 402. 401. 407. 411. 405. 412. 408. 412. 416. 417. 425. 425. 431. 448. 437. 431. 443. 444. 455. 448. 451. 471. 469. 466. 462. 460. 463. 462. 460. 459. 463. 463. 471. 475. 475. 474. 476. 475. 479. 484. 490. 478. 481. 486. 490. 499. 509. 506. 535. 535. 538. 538. 559. 550. 574. 575. 582. 635. 640. 655. 666. 714. 751. 
386. 392. 410. 420. 453. 454. 444. 413. 396. 419. 399. 375. 375. 380. 375. 377.44434 377. 382. 398. 392. 399. 393. 395. 397. 414. 425. 435. 413. 431. 423. 416. 412. 407. 411. 411. 410. 412. 409. 412. 414. 414. 420. 422. 429. 431. 434. 436. 446. 500. 457. 456. 459. 460. 463. 466. 465. 459. 457. 459. 461. 471. 464. 464. 488. 483. 475. 475. 474. 471. 476. 477. 477. 474. 481. 482. 483. 489. 496. 506. 519. 533. 527. 530. 542. 544. 570. 579. 599. 593. 694. 654. 655. 681. 854. 
382. 391. 413. 412. 459. 449. 458. 420. 395. 427. 406. 375. 370. 374.5237 376. 380. 378. 381. 390. 390. 392. 396. 390. 392. 409. 431. 429. 413. 429. 442. 426. 407. 403. 410. 408. 415. 414. 418. 416. 414. 414. 416. 419. 428. 430. 435. 436. 445. 463. 458. 454. 452. 457. 463. 468. 474. 461. 455. 456. 465. 474. 466. 461. 487. 491. 475. 478. 475. 470. 472. 472. 478. 473. 479. 478. 479. 485. 491. 515. 524. 550. 540. 524. 530. 540. 555. 562. 581. 607. 723. 678. 670. 699. 767. 
377. 386. 393. 404. 443. 465. 407. 403. 384. 407. 441. 372. 377. 385. 397. 378. 383. 381. 381. 394. 411. 409. 411. 395. 411. 419. 411. 418. 453. 440. 420. 410. 400. 406. 408. 415. 414. 418. 420. 415. 418. 418. 421. 423. 453. 454. 442. 457. 458. 449. 451. 450. 454. 464. 464. 462. 461. 455. 463. 469. 493. 462. 461. 466. 486. 473. 473. 474. 468. 467. 469. 471. 469. 475. 476. 483. 483. 488. 507. 506. 532. 544. 522. 525. 528. 549. 545. 603. 685. 698. 683. 673. 686. 724. 
390. 406. 418. 409. 443. 441. 466. 443. 429. 411. 394. 373. 369. 381. 408. 389. 388. 406. 398. 399. 399. 400. 405. 408. 418. 410. 422. 421. 429. 428. 426. 414. 405. 406. 406. 411. 414. 415. 424. 433. 427. 419. 424. 425. 438. 461. 472. 454. 458. 452. 448. 451. 454. 466. 463. 459. 459. 453. 452. 507. 475. 462. 459. 460. 464. 464. 472. 464. 466. 467. 468. 476. 478. 478. 477. 485. 488. 496. 498. 496. 510. 515. 535. 517. 527. 541. 544. 593. 650. 695. 675. 660. 687. 714. 
384. 400. 407. 403. 429. 542. 502. 490. 384. 381. 373. 379. 371. 375. 386. 393. 386. 430. 412. 396. 399. 398. 417. 436. 420. 408. 413. 417. 449. 431. 428. 421. 421. 418. 410. 408. 413. 419. 421. 440. 429. 437. 433. 433. 446. 442. 444. 454. 464. 445. 441. 452. 452. 460. 464. 475. 484. 476. 458. 504. 464. 456. 455. 462. 467. 461. 462. 463. 464. 468. 465. 470. 478. 509. 480. 480. 491. 497. 501. 508. 510. 529. 515. 518. 522. 529. 534. 560. 590. 740. 736. 651. 658. 670. 
374. 434. 422. 407. 414. 505. 481. 537. 397. 369. 378. 408. 372. 375. 379. 391. 382. 426. 412. 396. 399. 402. 411. 418. 429. 420. 411. 421. 441. 430. 427. 428. 417. 423. 420. 409. 418. 420. 420. 434. 429. 439. 435. 442. 447. 443. 447. 447. 447. 440. 443. 447. 449. 462. 461. 474. 483. 460. 468. 482. 464. 458. 453. 467. 463. 462. 462. 461. 470. 468. 469. 473. 478. 494. 485. 481. 487. 494. 497. 513. 513. 523. 524. 520. 524. 526. 534. 557. 576. 687. 708. 656. 667. 661. 
397. 400. 411. 424. 429. 481. 455. 455. 404. 363. 377. 388. 375. 372. 377. 383. 381. 400. 414. 413. 394. 402. 423. 414. 415. 418. 419. 429. 436. 455. 451. 445. 424. 415. 412. 423. 420. 419. 422. 425. 433. 439. 439. 437. 443. 451. 445. 446. 440. 442. 444. 447. 454. 456. 457. 460. 486. 463. 454. 451. 460. 455. 453. 464. 457. 461. 462. 462. 463. 464. 472. 475. 479. 492. 487. 483. 499. 491. 494. 512. 515. 536. 532. 513. 520. 526. 529. 552. 579. 620. 692. 713. 635. 652. 
400. 411. 398. 405. 388. 412. 416. 466. 433. 367. 378. 375. 377. 380. 379. 391. 380. 379. 402. 395. 396. 422. 403. 406. 411. 415. 417. 424. 429. 434. 441. 436. 436. 428. 420. 430. 416. 424. 432. 434. 436. 445. 461. 440. 448. 446. 445. 437. 437. 445. 449. 451. 450. 454. 451. 457. 456. 455. 450. 448. 454. 450. 454. 456. 454. 457. 456. 459. 471. 471. 471. 476. 491. 507. 492. 492. 487. 493. 498. 499. 502. 518. 515. 509. 515. 522. 531. 537. 556. 578. 589. 695. 655. 622. 
422. 399. 409. 394. 371. 397. 428. 450. 432. 374. 392. 380. 399. 387. 380. 396. 389. 397. 386. 418. 399. 405. 401. 406. 414. 418. 420. 421. 432. 443. 444. 441. 437. 433. 420. 429. 419. 422. 422. 432. 437. 443. 448. 451. 446. 440. 442. 434. 436. 441. 444. 444. 454. 455. 455. 458. 469. 448. 446. 444. 455. 456. 455. 453. 452. 454. 455. 457. 463. 472. 472. 475. 498. 525. 517. 494. 489. 490. 493. 495. 500. 505. 502. 507. 510. 525. 531. 535. 542. 569. 584. 692. 613. 613. 
